ply
format ascii 1.0
comment File exported by Rhinoceros Version 6.0
element vertex 1727
property float x
property float y
property float z
end_header
-7.281153 5.515614 -17.41324
-6.868399 5.290067 -8.908725
-6.681153 5.473673 -2.589023
-7.225114 5.890067 5.424696
-6.681153 5.776585 -13.19948
-6.681153 5.570494 1.606367
-7.277416 5.383713 -20
-7.090299 5.880555 9.341278
-6.681153 5.356514 -6.297309
-8.559508 3.272958 -10.73283
-8.425131 3.381153 -2.298809
-7.959508 3.329978 -0.2236028
-8.279133 2.781153 0.7125685
-8.08218 2.785959 -20
-8.531787 2.79566 3.909889
-7.959508 3.338311 -4.876753
-8.388472 3.381153 -7.882359
-8.437493 2.781153 -2.002918
-8.403449 3.381153 -17.39227
-8.559508 3.324937 -1.04635
-8.559508 3.095027 -14.13418
-8.559508 2.789975 -6.144301
-7.959508 2.833665 -15.65225
-7.959508 3.157563 -19.31213
-8.207067 2.781153 -3.211488
-7.959508 3.300436 -8.391394
-7.959508 2.973138 -3.730623
-8.536888 3.381153 -9.964855
-8.441954 3.358512 -20
-8.197332 3.381153 -5.535818
-8.479162 2.781153 -12.0443
-7.987407 3.381153 -11.59934
-8.37307 3.381153 -16.1155
-8.559508 2.834745 -17.17473
-8.501477 2.781153 -9.053938
-8.559508 2.86803 -1.283287
-8.041483 3.381153 0.4019951
-7.959508 2.89366 -7.362384
-7.959508 3.055881 -13.87872
-8.559508 3.283118 -18.50673
-7.959508 2.792628 -18.08915
-8.331642 2.781153 -19.37041
-8.175444 3.381153 1.696746
-8.559508 3.325321 -4.497854
-7.959508 3.338492 -12.47661
-8.529085 2.781153 -10.42751
-8.497677 3.381153 -3.042687
-7.959508 2.942219 -15.13037
-8.539618 3.381153 -13.73419
-7.959508 3.318447 -18.03577
-8.559508 2.926793 3.477894
-8.559508 3.27551 -16.85815
-8.460822 3.381153 -0.1962363
-8.49385 3.381153 2.610536
-8.559508 2.95474 -7.571891
-7.959508 3.227774 -16.44423
-8.559508 3.267547 -11.24614
-8.559508 2.797644 -14.56394
-7.985465 3.381153 -18.71511
-8.023081 3.381153 -15.69253
-8.559508 2.893077 1.554334
-8.395019 2.781153 -9.601506
-7.998576 3.381153 -13.21867
-8.049319 2.850797 3.909889
-8.149772 3.381153 3.227781
-8.559508 3.35866 -11.93209
-8.135312 3.381153 -9.379593
-7.959508 3.308458 -1.065122
-7.959508 3.253613 -3.336991
-8.435541 2.781153 -8.427099
-8.238703 2.781153 -6.796705
-8.055062 3.381153 -10.74268
-8.559508 2.833614 -2.636929
-7.959508 3.248498 -19.92496
-7.959508 2.882248 -4.691443
-8.385908 3.381153 -6.368614
-7.96581 2.781153 -1.507987
-7.993392 3.381153 -4.067738
-7.963761 2.781153 -12.72823
-7.975677 2.781153 1.161966
-8.535697 3.381153 -8.756104
-8.556559 2.781153 2.514375
-7.959508 3.037323 -17.21466
-8.009915 2.781153 3.133305
-8.029342 2.781153 0.1067113
-8.230607 2.781153 -18.59868
-7.959508 3.076948 -7.860661
-8.559508 2.98071 -5.174841
-8.559508 3.281285 -1.657916
-7.959508 2.819182 -11.92691
-7.959508 3.009425 -10.05309
-8.31081 2.781153 -13.5711
-8.559508 3.07747 -15.35583
-8.540201 3.381153 -19.06251
-8.239336 3.381153 -7.119859
-8.379381 2.781153 -16.23203
-8.300361 2.781153 -0.7405231
-8.54453 2.781153 -3.930907
-7.959508 3.09205 2.197865
-8.559508 3.282773 -12.71384
-8.559508 3.006699 -17.89208
-8.146754 2.781153 -10.96184
-7.959508 2.964759 -5.811985
-8.50347 3.381153 0.7183083
-7.959508 3.267671 -14.45833
-7.959508 3.061579 -2.393206
-8.555772 2.874799 -20
-8.368654 3.371641 3.909889
-7.959508 2.847599 -8.833827
-8.465875 -1.653219E-15 -18.43988
-9 0.4089283 -10.14669
-8.634754 -1.653219E-15 -13.26863
-9 0.06690136 -10.53628
-9 0.3116893 -18.18031
-8.872443 -1.653219E-15 -19.06999
-9 0.2728853 -14.74368
-8.71299 -1.653219E-15 -18.19143
-8.4 0.4806482 -15.4555
-8.698635 0.2969847 -20
-8.4 0.3388827 -17.11002
-8.666654 -1.653219E-15 -11.28305
-8.4 0.04783412 -16.18186
-8.507154 0.6 -13.9243
-9 0.5116144 -17.53418
-9 0.2447265 -15.72941
-8.4 0.3764105 -19.70859
-8.498455 -1.653219E-15 -15.84491
-8.4 0.25151 -10.75484
-8.658281 -1.653219E-15 -10.82033
-8.715731 -1.653219E-15 -15.00216
-9 0.00821102 -19.65273
-8.402542 0.6 -9.968723
-9 0.3155994 -12.94604
-8.98689 0.0492608 -9.870653
-8.452613 0.6 -12.75055
-8.4 0.37094 -16.78842
-8.4 0.2860418 -19.35362
-8.481975 0.6 -11.35676
-9 0.1379018 -11.75251
-9 0.4158745 -17.18106
-8.4 0.08579773 -17.40962
-8.876525 -1.653219E-15 -15.51489
-8.801997 -1.653219E-15 -12.75224
-8.661292 -1.653219E-15 -13.62253
-8.675091 0.6 -18.71792
-8.617857 0.6 -10.8556
-8.535101 -1.653219E-15 -12.18946
-8.551668 0.6 -18.32011
-8.904183 0.6 -13.36994
-8.779675 0.6 -15.96454
-9 0.5519646 -16.83454
-8.4 0.002482302 -14.85504
-8.852804 0.6 -12.14993
-8.4 0.3714934 -15.82904
-8.4 0.1063494 -14.45983
-8.573762 -1.653219E-15 -11.67369
-8.450692 0.6 -15.12686
-8.902929 0.6 -19.53057
-8.680625 -1.653219E-15 -16.42686
-8.435389 -1.653219E-15 -12.99662
-8.976851 0.5556533 -20
-9 0.1119244 -10.86858
-8.474562 -1.653219E-15 -17.80961
-8.971804 0.6 -17.93143
-8.893849 0.6 -16.41901
-9 0.575264 -11.164
-8.450438 0.03258114 -20
-8.42157 0.6 -10.46034
-8.458503 0.6 -14.26884
-9 0.4972327 -14.40398
-8.792038 -1.653219E-15 -17.36269
-8.4 0.4588975 -12.00115
-9 0.2116797 -15.10602
-8.873036 0.6 -12.59489
-9 0.02489979 -11.32318
-9 0.4042038 -19.14985
-8.404253 -1.653219E-15 -16.91934
-8.4 0.3858349 -13.24828
-8.4 0.2301342 -18.21805
-8.4 0.0125051 -18.76442
-9 0.03378753 -13.90869
-9 0.02275032 -10.21989
-8.492242 0.03680225 -9.870653
-9 0.5647002 -18.46331
-8.671099 -1.653219E-15 -19.40634
-8.680147 0.6 -17.08388
-9 0.1541576 -17.77617
-8.4 0.08838558 -13.97928
-8.826801 0.6 -15.54578
-8.4 0.05173276 -10.47798
-8.890423 -1.653219E-15 -14.48038
-8.485268 0.5727128 -20
-8.993745 0.6 -10.5466
-9 0.05124096 -12.18204
-8.839117 -1.653219E-15 -15.99484
-8.74251 0.6 -14.76799
-8.4 0.5143406 -16.25735
-8.985022 -1.653219E-15 -13.19238
-8.4 0.5644212 -19.08919
-8.910423 0.6 -11.73636
-9 0.1250266 -16.73052
-8.943028 -1.653219E-15 -18.48201
-8.4 0.1924953 -11.17588
-8.86585 0.6 -13.79376
-8.4 0.486518 -17.65229
-8.4 0.2804265 -12.54094
-8.996264 0.0936459 -20
-8.809146 0.5904876 -9.870653
-8.4 0.06644639 -15.26949
-8.164049 -2.781153 -9.216186
-8.44092 -2.181153 -15.61369
-7.959508 -2.574825 -7.291517
-8.437493 -2.781153 -7.782721
-8.559508 -2.282744 -8.776964
-8.01218 -2.181153 -12.40518
-8.421506 -2.181153 -6.476741
-8.066663 -2.181153 -10.26436
-7.989065 -2.338263 -3.768825
-8.559508 -2.380498 -4.444845
-8.131107 -2.781153 -18.60277
-8.159617 -2.781153 -17.94631
-7.959508 -2.282209 -6.211921
-8.536888 -2.181153 -13.18766
-8.534025 -2.613514 -3.768825
-8.559508 -2.228965 -11.42312
-8.479162 -2.781153 -14.59929
-7.959508 -2.266005 -10.83752
-7.966118 -2.181153 -17.0941
-8.013459 -2.781153 -19.57921
-8.375594 -2.781153 -5.777054
-8.409944 -2.181153 -9.820415
-7.959508 -2.206205 -12.94816
-8.052176 -2.662552 -20
-8.1912 -2.781153 -6.21662
-8.559508 -2.571858 -11.07355
-8.118711 -2.181153 -14.17073
-8.436033 -2.781153 -12.8131
-7.959508 -2.684839 -4.344633
-8.554886 -2.181153 -13.86992
-8.559508 -2.713239 -18.21323
-8.177365 -2.181153 -5.347102
-8.480249 -2.781153 -10.54364
-8.559508 -2.20264 -16.37757
-8.463692 -2.181153 -9.376058
-8.090225 -2.181153 -11.84067
-8.559508 -2.360549 -7.768801
-8.559508 -2.30046 -17.68631
-8.559508 -2.43055 -5.435654
-8.364861 -2.219395 -20
-8.180819 -2.181153 -4.383256
-8.559508 -2.320976 -6.860203
-8.365408 -2.181153 -8.319415
-7.959508 -2.759571 -11.72772
-8.559508 -2.752889 -15.22316
-7.994897 -2.781153 -8.777843
-7.959508 -2.609725 -17.16089
-8.033606 -2.781153 -7.595809
-8.499716 -2.181153 -4.910221
-8.559508 -2.634696 -12.23282
-7.959508 -2.385143 -15.26723
-8.527068 -2.781153 -6.50684
-7.959508 -2.717417 -13.90126
-8.559508 -2.203645 -14.52312
-8.559508 -2.56502 -13.49101
-8.539936 -2.781153 -19.39891
-8.559508 -2.715252 -5.053007
-8.442566 -2.181153 -19.07473
-7.959508 -2.663776 -15.79962
-8.411478 -2.181153 -18.17953
-8.559508 -2.728692 -8.213118
-8.090044 -2.738449 -3.768825
-7.959508 -2.378301 -9.637284
-8.04883 -2.781153 -13.17857
-8.114305 -2.181153 -7.519422
-7.959508 -2.422158 -18.38878
-8.048058 -2.181153 -11.35671
-8.559508 -2.187285 -11.91187
-8.385823 -2.781153 -16.71305
-7.986929 -2.181153 -14.62298
-8.559508 -2.273561 -10.74202
-8.559508 -2.758403 -4.328436
-7.959508 -2.730983 -11.09152
-8.437093 -2.181153 -17.07568
-7.959508 -2.566624 -19.07804
-8.559508 -2.581596 -9.935974
-8.463115 -2.181153 -12.62544
-8.559508 -2.691285 -15.85938
-7.959508 -2.680797 -5.69214
-7.965377 -2.181153 -6.702787
-7.959508 -2.332461 -17.79337
-7.959508 -2.288709 -19.72621
-8.033601 -2.781153 -14.90574
-8.091834 -2.181153 -13.5914
-8.022431 -2.181153 -8.825191
-8.559508 -2.740036 -11.59945
-8.490643 -2.181153 -15.1813
-8.325705 -2.781153 -7.090609
-8.54453 -2.781153 -9.091532
-7.959508 -2.470256 -4.931028
-8.559508 -2.58375 -18.70606
-8.559508 -2.609181 -14.10039
-8.502537 -2.781153 -17.56758
-7.959508 -2.597547 -10.3685
-8.50347 -2.181153 -5.935422
-7.959508 -2.294635 -16.23805
-7.959508 -2.500726 -8.047668
-8.555772 -2.687507 -20
-8.368654 -2.190665 -3.768825
-7.959508 -2.714707 -12.41987
-7.281153 -4.857941 -18.88818
-7.21875 -5.290067 -19.82071
-7.281153 -5.098715 -18.73681
-6.794198 -4.690067 -16.93812
-7.281153 -4.901392 -17.37573
-6.681153 -4.930521 -16.74853
-6.733825 -4.690067 -18.34088
-7.281153 -4.746284 -17.18923
-6.681153 -4.875501 -17.73184
-6.681153 -4.900855 -19.76935
-7.281153 -5.281245 -17.94524
-6.681153 -4.693653 -18.85694
-6.681153 -5.107788 -18.7328
-7.021904 -5.277171 -16.45423
-7.281153 -5.271717 -17.27633
-7.054083 -4.690067 -16.93168
-7.211996 -4.690067 -18.39057
-7.200807 -5.290067 -18.82019
-6.829908 -5.290067 -16.81772
-6.907852 -5.09033 -16.45423
-6.681153 -4.920787 -17.51364
-7.281153 -5.264167 -16.68439
-6.962701 -4.690067 -17.51655
-6.681153 -5.052744 -19.13269
-6.795018 -5.290067 -17.10504
-6.83678 -4.968178 -20
-7.260457 -5.290067 -18.38103
-7.059457 -5.26122 -20
-7.04501 -4.690067 -19.74122
-7.244534 -4.690067 -19.93922
-7.281153 -4.745899 -17.70107
-7.281153 -4.973708 -18.29917
-6.723884 -5.290067 -19.53163
-6.681153 -5.065946 -16.57843
-6.681153 -4.898983 -18.64501
-7.281153 -4.930769 -16.57701
-7.281153 -4.711554 -19.20866
-6.871281 -5.290067 -18.56721
-7.281153 -5.26127 -17.00961
-6.71426 -5.290067 -18.07664
-6.681153 -4.828865 -17.30522
-6.681153 -4.724566 -16.63337
-7.281153 -5.061028 -19.34117
-6.817416 -5.246613 -20
-6.952091 -5.290067 -18.27802
-6.773067 -5.290067 -19.19002
-6.681153 -4.881964 -18.38518
-6.948591 -4.690067 -17.14171
-6.961126 -4.690067 -19.32393
-7.06087 -4.952567 -16.45423
-7.176958 -5.290067 -19.03484
-7.281153 -4.971056 -17.99471
-6.681153 -4.894057 -18.96611
-7.107661 -4.988213 -20
-7.281153 -4.714803 -16.90697
-6.935974 -4.690067 -19.05213
-6.946229 -4.690067 -18.28244
-7.268144 -5.290067 -17.67463
-7.139833 -4.690067 -18.81386
-6.957489 -5.290067 -19.75031
-6.980275 -5.290067 -17.50655
-7.057313 -4.690067 -17.84104
-6.681153 -5.010625 -18.04546
-6.681153 -4.822722 -19.98887
-6.892742 -4.690067 -16.77549
-7.066134 -5.290067 -16.84641
-7.281153 -4.902773 -19.80788
-7.180391 -4.690067 -17.38469
-6.681153 -5.155834 -16.88372
-6.681153 -5.059933 -19.37623
-7.281153 -4.984011 -17.18462
-7.281153 -5.234631 -19.62923
-7.008491 -5.290067 -17.88681
-7.231631 -5.234569 -16.45423
-7.242795 -4.690067 -19.47113
-7.132428 -5.290067 -18.61636
-7.224924 -4.690067 -18.16014
-6.681153 -5.183777 -17.27136
-6.718704 -4.690067 -19.61976
-6.78602 -4.880756 -16.45423
-7.281153 -4.936913 -19.05173
-6.755245 -5.290067 -18.88714
-6.813478 -4.690067 -18.60001
-6.744075 -4.690067 -17.55882
-7.281153 -4.998773 -16.83449
-7.281153 -5.24895 -18.16486
-7.007354 -4.725487 -20
-7.047349 -5.290067 -17.17989
-6.778899 -4.690067 -18.02839
-6.681153 -5.137628 -19.78588
-7.055564 -5.290067 -19.30168
-6.809934 -5.290067 -16.53381
-6.681153 -5.244956 -17.67666
-7.281153 -4.881085 -18.56628
-6.681153 -4.803852 -17.04177
-6.681153 -4.751637 -19.20656
-7.281153 -4.961987 -17.57997
-7.277416 -5.196421 -20
-7.176277 -4.690067 -16.46887
-6.681153 -5.223621 -18.34409
-5.190756 -6.681153 -7.225157
-4.910798 -7.281153 -13.3528
-4.690067 -7.182653 -15.81213
-4.690067 -6.900063 -5.03875
-4.690067 -6.688286 -1.400957
-4.750565 -7.281153 -19.03535
-4.690067 -6.92249 -16.16796
-5.03734 -7.281153 -4.555124
-4.690067 -6.723995 -8.045203
-5.290067 -7.084357 -10.85316
-4.758987 -7.281153 -11.81061
-4.690067 -7.194834 -9.216284
-4.742739 -6.681153 -11.15613
-5.152065 -6.681153 -4.252699
-5.269166 -7.281153 -11.66382
-5.290067 -6.988102 -13.91736
-5.290067 -7.039579 -3.539456
-4.690067 -7.237362 -12.34491
-5.290067 -7.175526 -1.701966
-5.267447 -6.681153 -12.0673
-5.172513 -6.703794 -20
-4.927891 -6.681153 -8.566189
-5.290067 -6.965553 -6.837861
-4.813187 -7.281153 -7.21512
-4.744018 -7.281153 -19.51001
-4.690067 -6.798812 -14.42894
-5.137636 -7.281153 -15.84297
-4.772042 -6.681153 -3.872398
-5.19028 -7.281153 -12.64038
-5.290067 -6.797724 -18.00132
-5.274466 -6.681153 -12.63555
-4.84927 -6.681153 -13.21204
-4.701457 -7.180396 -1.099438
-4.690067 -7.15485 -6.765698
-4.732799 -7.281153 -17.50338
-5.290067 -6.682024 -9.724771
-4.907924 -6.681153 -2.937279
-4.758394 -7.281153 -15.30312
-5.290067 -6.70264 -15.78182
-5.290067 -7.252355 -4.059869
-5.290067 -6.860549 -5.757252
-5.236927 -6.681153 -16.99957
-4.690067 -7.240704 -10.52805
-4.911377 -6.681153 -1.814918
-5.095966 -6.681153 -6.39842
-5.197303 -6.681153 -7.735956
-4.800712 -7.281153 -18.20428
-4.957505 -6.681153 -4.764023
-4.764164 -7.281153 -5.555809
-5.290067 -7.169229 -2.961484
-5.230274 -6.681153 -2.428549
-4.697604 -7.029298 -20
-4.690067 -7.217417 -12.89826
-5.290067 -6.818975 -11.4204
-4.690067 -6.709054 -18.88928
-4.874847 -7.281153 -14.55513
-4.74857 -6.681153 -9.306117
-5.213863 -7.281153 -1.175212
-4.969261 -7.281153 -9.562909
-5.123916 -7.281153 -12.11032
-5.290067 -7.228692 -6.274642
-4.792329 -6.681153 -14.96254
-5.210981 -7.281153 -19.1311
-5.260606 -7.281153 -17.84253
-4.844863 -6.681153 -5.46686
-4.690067 -6.742929 -17.24081
-4.763073 -6.681153 -11.88952
-4.690067 -7.051019 -16.67503
-4.706235 -7.281153 -3.271647
-4.717488 -6.681153 -13.73868
-5.287117 -7.281153 -2.20258
-5.009658 -6.681153 -10.65275
-4.690067 -7.168213 -7.839688
-4.740474 -7.281153 -1.713321
-5.290067 -7.09431 -9.074152
-4.690067 -7.018201 -4.328918
-5.290067 -7.081596 -8.280839
-4.961556 -7.281153 -13.98614
-4.760684 -6.681153 -9.973807
-5.290067 -7.191285 -15.17842
-4.727618 -6.681153 -17.97316
-4.900442 -6.681153 -19.5107
-5.290067 -6.984836 -16.32882
-4.822392 -6.681153 -12.53744
-4.75299 -6.681153 -6.987377
-5.290067 -7.240036 -10.21789
-5.221201 -6.681153 -14.38881
-5.056263 -7.281153 -4.967524
-5.275089 -7.281153 -7.29752
-4.690067 -6.970255 -2.452778
-5.290067 -7.08375 -18.49326
-5.290067 -7.109181 -13.13013
-5.233095 -7.281153 -17.16754
-4.690067 -7.097547 -8.784495
-5.234029 -6.681153 -3.622355
-4.690067 -6.794635 -15.61936
-4.690067 -7.000726 -6.081981
-5.286331 -7.187507 -20
-5.099213 -6.690665 -1.099438
-4.690067 -7.214706 -11.17324
-2.181153 -8.154253 -19.80723
-2.709311 -7.959508 -18.9358
-2.378497 -8.559508 -18.45599
-2.181153 -8.002351 -18.90824
-2.610116 -7.959508 -19.12522
-2.181153 -8.199963 -18.41718
-2.762941 -8.370869 -18.27392
-2.233824 -7.959508 -19.19234
-2.307131 -8.559508 -19.14923
-2.646036 -8.354484 -20
-2.781153 -8.229568 -18.70629
-2.390106 -8.451306 -20
-2.181153 -8.37723 -19.38313
-2.781153 -8.488392 -19.25005
-2.608295 -8.559508 -19.74527
-2.758533 -7.959508 -19.27555
-2.643008 -7.959508 -18.65063
-2.544636 -7.959508 -19.48837
-2.181153 -8.030802 -18.43367
-2.528216 -8.405279 -18.27392
-2.181153 -8.046886 -18.60541
-2.781153 -8.112281 -18.88946
-2.181153 -8.558682 -19.03325
-2.775946 -8.115428 -20
-2.718586 -8.559508 -18.892
-2.295018 -8.559508 -18.59073
-2.781153 -8.358442 -19.62701
-2.252343 -8.559508 -18.75235
-2.779428 -8.101124 -18.27392
-2.553286 -8.559508 -19.95455
-2.58315 -8.559508 -18.76495
-2.781153 -8.305203 -18.46506
-2.614416 -7.959508 -18.4623
-2.276596 -8.205128 -20
-2.781153 -8.13981 -19.27971
-2.181153 -8.218743 -19.6671
-2.727419 -8.559508 -19.57933
-2.532347 -8.559508 -18.48053
-2.251082 -8.434091 -18.27392
-2.181153 -8.30309 -19.17963
-2.781153 -8.213201 -19.05564
-2.453249 -7.959508 -18.703
-2.658538 -8.559508 -19.31834
-2.234529 -7.959508 -19.82781
-2.253371 -8.174142 -18.27392
-2.433289 -7.959508 -19.61494
-2.503987 -8.001961 -20
-2.598629 -7.959508 -19.73386
-2.781153 -8.165526 -19.49238
-2.181153 -8.163499 -19.4967
-2.181153 -8.553445 -19.98826
-2.631156 -8.181149 -20
-2.181153 -8.425877 -18.67078
-2.195802 -8.559508 -19.76009
-2.399738 -8.559508 -18.28989
-2.781153 -8.493608 -18.41048
-2.781153 -8.062206 -19.66368
-2.460347 -8.559508 -19.04684
-2.781153 -8.081296 -18.5123
-2.781153 -8.347829 -19.16605
-2.181153 -7.981602 -19.05616
-2.4683 -8.090203 -18.27392
-2.181153 -8.156657 -18.89799
-2.270339 -8.559508 -19.45665
-2.327628 -7.959508 -18.54009
-2.781153 -8.405208 -18.91845
-2.566168 -7.959508 -19.28919
-2.546093 -7.959508 -18.89458
-2.781153 -8.488185 -19.76209
-2.781153 -8.227764 -19.79535
-2.181153 -8.446568 -18.88947
-2.339675 -7.959508 -19.4193
-2.389389 -8.30644 -18.27392
-2.454057 -8.284527 -20
-2.181153 -8.34498 -19.90195
-2.400401 -7.959508 -19.1021
-2.54241 -8.559508 -19.59612
-2.677674 -8.256978 -18.27392
-2.458631 -8.559508 -19.25588
-2.781153 -8.040299 -18.72388
-2.671576 -8.559508 -19.05943
-2.181153 -8.244449 -18.5547
-2.408558 -8.559508 -18.71001
-2.181153 -8.366223 -19.57599
-2.181153 -8.104686 -19.26116
-2.712287 -7.959508 -19.48756
-2.616235 -8.539194 -18.27392
-2.764296 -8.456658 -20
-2.297756 -8.021587 -20
-2.253559 -7.959508 -18.30163
-2.781153 -8.434483 -19.44287
-2.781153 -8.465978 -18.69108
-2.181153 -7.975403 -19.64936
-2.198979 -7.959508 -18.7596
-2.398841 -8.559508 -19.87502
-2.781153 -8.03376 -19.07266
-2.189194 -8.559508 -18.38746
-2.717341 -7.959508 -19.92365
-2.676277 -7.959508 -18.28105
-2.181153 -8.493062 -19.1939
0.6 -8.451175 -16.22429
0.1583553 -9 -18.76396
1.102146E-15 -8.688311 -19.17994
0.5895178 -8.4 -18.03583
1.102146E-15 -8.808648 -18.37375
1.102146E-15 -8.505891 -17.02933
0.3154082 -8.4 -19.07908
1.102146E-15 -8.607438 -15.70753
0.3598734 -9 -16.79314
0.6 -8.585433 -17.07994
0.6 -8.958262 -16.5859
1.102146E-15 -8.991178 -17.35467
0.3188759 -8.660098 -15.43512
0.6 -8.81772 -18.36858
0.6 -8.944966 -19.44326
0.6 -8.808015 -16.89385
0.5120963 -8.4 -19.26383
1.102146E-15 -8.768708 -16.47726
0.6 -8.639605 -18.06842
0.02709015 -9 -15.97583
1.102146E-15 -8.684401 -16.82107
0.6 -8.999174 -17.44329
0.1307385 -8.64227 -20
0.5539105 -8.402106 -15.43512
0.1524316 -9 -18.99599
0.02069611 -9 -17.91571
0.2910221 -8.4 -19.35516
1.102146E-15 -8.737142 -17.20602
0.3746596 -8.4 -17.88352
0.0366196 -8.4 -19.92175
1.102146E-15 -8.693591 -15.92973
1.102146E-15 -8.683641 -17.81032
0.3821433 -8.4 -15.879
0.5834976 -8.883348 -20
0.2733129 -8.4 -16.93158
0.04968624 -8.4 -19.21746
0.281025 -9 -17.17608
0.1547339 -9 -16.23997
0.4545676 -8.993445 -15.43512
0.3401753 -8.4 -18.7205
0.6 -8.91631 -18.81559
0.6 -8.434499 -15.66576
0.274949 -9 -19.51045
0.380628 -8.4 -16.16974
0.3290622 -9 -17.7831
0.0829018 -8.71636 -15.43512
0.4745404 -9 -18.24586
1.102146E-15 -8.82625 -15.71173
0.5798414 -8.4 -17.27708
1.102146E-15 -8.649963 -19.80993
0.6 -8.61889 -17.80836
0.6 -8.680886 -16.21975
0.1419967 -9 -18.52238
0.6 -8.603991 -18.66895
0.6 -8.705462 -19.22783
0.0004492569 -9 -16.5007
0.5608754 -8.56723 -20
0.3261705 -8.954918 -20
1.102146E-15 -8.532146 -18.51935
0.3208061 -9 -17.47923
1.102146E-15 -8.628342 -17.49859
0.6 -8.720558 -17.48369
0.1059664 -8.4 -16.2651
0.00064672 -9 -19.63612
0.4452037 -8.4 -16.48994
0.5661162 -8.4 -16.95821
0.3749472 -9 -16.56135
0.135375 -8.4 -18.89074
0.2549644 -9 -15.83114
1.102146E-15 -8.597726 -18.10926
0.5939968 -9 -15.78057
0.05696345 -8.4 -15.79442
0.6 -8.560646 -18.31427
0.530167 -9 -16.16122
0.5579012 -8.718383 -15.43512
1.102146E-15 -8.954429 -19.27534
0.5293826 -8.4 -17.57847
0.5624492 -8.4 -19.51048
1.102146E-15 -8.48079 -16.6251
0.4361973 -9 -19.18507
0.5491026 -9 -17.09322
0.08561202 -8.4 -17.74261
0.1608825 -9 -18.19504
1.102146E-15 -8.958882 -17.63742
0.2737985 -8.435419 -20
0.1649181 -8.979686 -15.43512
0.01497828 -9 -16.93209
1.102146E-15 -8.451655 -19.50636
0.6 -8.847561 -19.72434
0.6 -8.5777 -15.908
0.6 -8.981187 -18.55119
1.102146E-15 -8.793544 -18.84224
0.2499318 -8.4 -18.26013
1.102146E-15 -8.772491 -16.17337
0.1341494 -8.4 -17.2031
0.6 -8.46157 -18.97851
0.6 -8.719573 -16.63851
0.003736672 -8.906354 -20
0.190854 -8.409513 -15.43512
0.6 -8.933554 -17.86815
2.781153 -8.067704 -10.73517
2.915531 -7.959508 -2.30328
3.381153 -8.010683 -0.2285983
3.061529 -8.559508 0.7073365
3.258481 -8.554702 -20
2.808875 -8.545002 3.903849
3.381153 -8.002351 -4.880573
2.95219 -7.959508 -7.88542
2.903168 -8.559508 -2.007464
2.937212 -7.959508 -17.39293
2.781153 -8.015725 -1.051137
2.781153 -8.245634 -14.13566
2.781153 -8.550686 -6.147801
3.381153 -8.506996 -15.65335
3.381153 -8.183098 -19.3123
3.133595 -8.559508 -3.215729
3.381153 -8.040226 -8.394326
3.381153 -8.367523 -3.734733
2.803773 -7.959508 -9.96739
2.898708 -7.98215 -20
3.143329 -7.959508 -5.539472
2.8615 -8.559508 -12.0463
3.353255 -7.959508 -11.60146
2.967592 -7.959508 -16.11648
2.781153 -8.505917 -17.17545
2.839185 -8.559508 -9.056703
2.781153 -8.472631 -1.288015
3.299179 -7.959508 0.3968416
3.381153 -8.447001 -7.365576
3.381153 -8.284781 -13.88027
2.781153 -8.057544 -18.50711
3.381153 -8.548034 -18.08963
3.00902 -8.559508 -19.37057
3.165218 -7.959508 1.691265
2.781153 -8.015341 -4.50177
3.381153 -8.00217 -12.47851
2.811577 -8.559508 -10.42993
2.842984 -7.959508 -3.046971
3.381153 -8.398443 -15.1316
2.801043 -7.959508 -13.73577
3.381153 -8.022215 -18.03627
2.781153 -8.413868 3.471964
2.781153 -8.065152 -16.85894
2.87984 -7.959508 -0.2012386
2.846812 -7.959508 2.604825
2.781153 -8.385921 -7.57503
3.381153 -8.112887 -16.44512
2.781153 -8.073114 -11.24835
2.781153 -8.543017 -14.56531
3.355197 -7.959508 -18.71543
3.31758 -7.959508 -15.69362
2.781153 -8.447584 1.548889
2.945643 -8.559508 -9.604133
3.342086 -7.959508 -13.22039
3.291342 -8.489864 3.903849
3.19089 -7.959508 3.221914
2.781153 -7.982001 -11.93413
3.20535 -7.959508 -9.382276
3.381153 -8.032204 -1.069905
3.381153 -8.087049 -3.3412
2.90512 -8.559508 -8.430022
3.101959 -8.559508 -6.800041
3.285599 -7.959508 -10.74502
2.781153 -8.507048 -2.641315
3.381153 -8.092164 -19.92497
3.381153 -8.458414 -4.69531
2.954753 -7.959508 -6.372057
3.374852 -8.559508 -1.512658
3.347269 -7.959508 -4.071762
3.3769 -8.559508 -12.73007
3.364985 -8.559508 1.15662
2.804965 -7.959508 -8.758944
2.784103 -8.559508 2.508688
3.381153 -8.303339 -17.21536
3.330746 -8.559508 3.127461
3.31132 -8.559508 0.1016324
3.110054 -8.559508 -18.59904
3.381153 -8.263714 -7.863728
2.781153 -8.359952 -5.178586
2.781153 -8.059377 -1.662549
3.381153 -8.52148 -11.92895
3.381153 -8.331236 -10.0556
3.029852 -8.559508 -13.57272
2.781153 -8.263192 -15.357
2.80046 -7.959508 -19.06275
3.101325 -7.959508 -7.123113
2.96128 -8.559508 -16.23298
3.040301 -8.559508 -0.745388
2.796131 -8.559508 -3.934966
3.381153 -8.248611 2.192258
2.781153 -8.057888 -12.71568
2.781153 -8.333962 -17.89261
3.193907 -8.559508 -10.96412
3.381153 -8.375903 -5.815568
2.837192 -7.959508 0.7130749
3.381153 -8.07299 -14.45973
3.381153 -8.279082 -2.397654
2.78489 -8.465862 -20
2.972007 -7.969021 3.903849
3.381153 -8.493062 -8.836647
5.890067 -6.947916 -11.07551
5.290067 -6.989006 -8.152139
5.890067 -7.11137 -9.437998
5.586322 -7.281153 -11.66957
5.310882 -7.281153 -3.377703
5.623414 -7.281153 -5.319641
5.42807 -6.681153 -5.78703
5.782913 -6.681153 -9.767826
5.290067 -6.880498 -3.651503
5.365504 -7.281153 -7.266328
5.367741 -6.681153 -7.206296
5.689959 -7.281153 -17.84157
5.734104 -6.681153 -17.31034
5.290067 -7.272942 -19.41516
5.694165 -6.681153 -12.02763
5.290067 -6.728965 -10.98568
5.353387 -6.681153 -15.44436
5.890067 -6.766005 -10.37021
5.874176 -6.907846 -2.941006
5.837455 -6.681153 -7.79108
5.676494 -7.281153 -4.427002
5.776468 -6.681153 -4.791977
5.808093 -6.681153 -5.443783
5.84167 -7.281153 -14.15105
5.864047 -6.708053 -20
5.890067 -7.100687 -6.545691
5.730864 -6.681153 -13.87342
5.822031 -6.681153 -8.829021
5.413542 -7.281153 -12.44655
5.290067 -7.21324 -18.1221
5.290067 -6.85481 -19.18585
5.890067 -7.120087 -16.52566
5.369327 -7.281153 -10.06135
5.290067 -6.70264 -16.19282
5.587379 -6.681153 -9.416002
5.686946 -6.681153 -16.69771
5.38126 -6.700458 -20
5.290067 -7.196545 -14.97128
5.290067 -7.238007 -16.18782
5.668757 -6.681153 -3.586773
5.290067 -6.820976 -6.190049
5.890067 -7.259571 -11.30582
5.779422 -7.281153 -18.37924
5.290067 -6.964249 -12.01696
5.854679 -7.281153 -8.205493
5.290067 -7.169229 -4.621624
5.34986 -6.681153 -4.140615
5.374134 -7.281153 -7.828839
5.290067 -6.742013 -17.19257
5.322507 -7.281153 -5.818665
5.890067 -7.217417 -13.59022
5.290067 -6.703645 -14.24379
5.890067 -7.10014 -14.97275
5.290067 -6.965059 -13.18545
5.290067 -7.01015 -6.865804
5.890067 -7.163775 -15.5854
5.708234 -6.681153 -10.77677
5.438097 -6.681153 -18.08669
5.548045 -7.269204 -2.941006
5.29586 -6.681153 -8.65777
5.80248 -7.281153 -19.3716
5.800746 -7.281153 -12.83066
5.405724 -6.681153 -7.720063
5.735271 -6.681153 -6.88289
5.890067 -6.849169 -18.67613
5.880646 -7.197149 -20
5.890067 -7.051019 -16.99899
5.862647 -6.681153 -14.34874
5.293017 -7.281153 -3.936663
5.570477 -6.681153 -11.56349
5.890067 -7.168213 -9.024523
5.290067 -6.873161 -10.3818
5.83966 -7.281153 -3.495075
5.890067 -7.230983 -10.63717
5.890067 -7.018201 -5.855823
5.290067 -7.081596 -9.42269
5.618578 -7.281153 -14.5721
5.290067 -7.191285 -15.6482
5.890067 -7.180797 -4.962412
5.463266 -6.681153 -12.49857
5.890067 -6.832461 -17.68083
5.679692 -6.681153 -19.55838
5.290067 -6.984836 -16.68652
5.757742 -6.681153 -13.26455
5.827145 -6.681153 -8.255256
5.290067 -7.240036 -11.171
5.358933 -6.681153 -14.93554
5.523871 -7.281153 -6.432206
5.305046 -7.281153 -8.53518
5.890067 -6.970255 -4.162483
5.290067 -7.08375 -18.64007
5.290067 -7.109181 -13.79949
5.347039 -7.281153 -17.44352
5.890067 -7.097547 -9.877273
5.346106 -6.681153 -5.218103
5.890067 -6.794635 -16.04618
5.890067 -7.000726 -7.438076
5.293804 -7.187507 -20
5.480921 -6.690665 -2.941006
5.890067 -7.214706 -12.03327
7.881153 -4.908977 -11.87321
7.281153 -4.881139 -10.0132
7.669398 -5.290067 -11.35492
7.281153 -4.978378 -18.15566
7.40871 -5.290067 -19.05739
7.281153 -5.037442 -17.20033
7.881153 -4.732909 -13.50628
7.881153 -4.809419 -15.39393
7.881153 -4.951185 -17.07087
7.281153 -4.923553 -15.69891
7.881153 -5.242233 -16.13013
7.773999 -4.690067 -13.84199
7.881153 -5.143322 -17.77328
7.281153 -4.960126 -12.3051
7.881153 -5.064638 -18.44505
7.782698 -5.290067 -15.78861
7.881153 -5.038558 -10.62958
7.622871 -5.290067 -10.69596
7.565423 -5.290067 -14.93444
7.530805 -4.990209 -20
7.281153 -5.251914 -19.46105
7.434268 -4.690067 -14.05635
7.281153 -4.974468 -12.85047
7.281153 -5.044586 -14.58694
7.281153 -5.22048 -13.44797
7.281153 -4.786376 -11.95817
7.599605 -4.690067 -12.80931
7.87708 -4.753272 -9.733416
7.281153 -5.152165 -11.64077
7.296754 -4.690067 -15.99971
7.881153 -5.204269 -17.37453
7.404628 -5.290067 -15.45412
7.655325 -4.690067 -18.62039
7.619861 -5.290067 -13.53612
7.663296 -4.690067 -10.73171
7.710806 -4.690067 -11.3502
7.301043 -4.690067 -17.30955
7.705013 -4.690067 -12.11617
7.353204 -5.077264 -9.733416
7.281153 -4.738102 -16.79165
7.881153 -5.287585 -14.78533
7.2925 -5.290067 -12.66806
7.881153 -4.918574 -15.77253
7.881153 -5.003593 -19.66865
7.881153 -5.183718 -14.38477
7.830461 -4.690067 -15.06084
7.378224 -4.690067 -19.5242
7.600528 -5.290067 -16.37845
7.845765 -5.290067 -12.90173
7.304302 -4.734414 -20
7.281153 -5.178143 -10.74486
7.881153 -4.797852 -16.66085
7.881153 -4.970953 -11.49807
7.309349 -4.690067 -17.9034
7.387303 -4.690067 -16.3705
7.281153 -4.714803 -11.04429
7.830715 -5.257486 -20
7.859583 -4.690067 -10.33109
7.82265 -4.690067 -14.1912
7.489115 -5.290067 -17.32695
7.797489 -5.290067 -11.85478
7.281153 -5.078388 -15.03972
7.286946 -4.690067 -13.17393
7.408117 -4.690067 -12.49456
7.281153 -5.265168 -11.20562
7.281153 -4.885863 -19.13834
7.8769 -5.290067 -16.8776
7.881153 -4.904233 -13.1568
7.738887 -5.290067 -18.08256
7.881153 -5.277562 -18.74768
7.840679 -4.690067 -18.16986
7.281153 -5.25628 -13.82616
7.281153 -5.267317 -10.08738
7.788911 -5.253265 -9.733416
7.281153 -4.725367 -18.44249
7.610054 -5.290067 -19.39829
7.601006 -4.690067 -17.04437
7.281153 -5.13591 -17.74603
7.881153 -5.201682 -13.8977
7.454352 -4.690067 -15.48543
7.881153 -5.238335 -10.34897
7.39073 -5.290067 -14.40559
7.795885 -4.717354 -20
7.287408 -4.690067 -10.41852
7.281153 -5.238826 -12.07611
7.442035 -5.290067 -15.94057
7.538643 -4.690067 -14.69711
7.881153 -4.775727 -16.20664
7.296131 -5.290067 -13.10015
7.881153 -4.725646 -19.07685
7.370729 -4.690067 -11.6244
7.281153 -5.16504 -16.68622
7.338125 -5.290067 -18.46144
7.881153 -5.097572 -11.05633
7.415302 -4.690067 -13.70967
7.881153 -4.803549 -17.62048
7.881153 -5.009641 -12.43988
7.28489 -5.196421 -20
7.472007 -4.69958 -9.733416
7.881153 -5.223621 -15.2054
9.159509 -2.66838 -19.54178
9.159509 -2.375898 -19.74735
9.036837 -2.776346 -20
8.559508 -2.589801 -19.19407
8.846519 -2.781153 -19.59608
8.578831 -2.781153 -17.88465
8.768584 -2.397779 -17.73777
8.715568 -2.181153 -19.75327
9.136365 -2.781153 -19.3942
8.928579 -2.736987 -17.73777
9.159509 -2.213765 -19.79576
8.559508 -2.615221 -19.62584
8.990217 -2.781153 -18.87848
9.159509 -2.26187 -18.90165
8.971102 -2.181153 -19.47552
8.816605 -2.181153 -17.84258
8.559508 -2.549861 -18.25422
9.159509 -2.506269 -19.8591
9.159509 -2.35239 -19.46185
9.159509 -2.369133 -18.22235
8.699961 -2.547776 -17.73777
9.036388 -2.781153 -18.46976
9.159509 -2.780327 -18.73296
9.047646 -2.181153 -18.51774
9.159509 -2.510453 -18.33476
9.159509 -2.554151 -17.93181
8.835884 -2.181153 -18.24023
8.559508 -2.354986 -18.5466
8.559508 -2.365278 -19.37043
9.159509 -2.769678 -19.8192
8.969412 -2.181153 -18.90597
8.84876 -2.590204 -20
8.564132 -2.181153 -19.14561
8.951513 -2.181153 -19.76614
8.559508 -2.287519 -18.89149
9.051632 -2.181153 -19.105
9.024407 -2.781153 -18.25564
8.743122 -2.781153 -18.80771
8.742095 -2.781153 -18.01787
8.559508 -2.64219 -19.82465
8.559508 -2.360549 -18.29527
9.159509 -2.2012 -17.92066
8.570856 -2.781153 -18.38441
9.133396 -2.362715 -20
8.88808 -2.781153 -19.86436
9.136646 -2.432048 -17.73777
8.779385 -2.181153 -18.84662
9.159509 -2.386153 -18.02873
9.005426 -2.781153 -17.95683
8.559508 -2.607404 -17.87485
8.836675 -2.223605 -20
8.820061 -2.181153 -18.56059
9.120441 -2.181153 -19.35839
8.559508 -2.242013 -19.6277
8.611931 -2.781153 -18.62396
8.559508 -2.205889 -18.02662
8.873037 -2.181153 -18.01193
9.159509 -2.60014 -19.33332
8.570395 -2.421389 -17.73777
8.782567 -2.781153 -19.01931
8.599728 -2.181153 -19.32726
8.76747 -2.781153 -19.411
8.686684 -2.450603 -20
9.159509 -2.460643 -18.81227
8.559508 -2.430782 -19.76076
9.159509 -2.354867 -18.5331
8.559508 -2.756253 -18.06216
8.559508 -2.451505 -18.76582
8.660271 -2.181153 -18.33141
8.880729 -2.551084 -17.73777
9.017242 -2.781153 -19.57749
9.119035 -2.181153 -19.59673
8.648026 -2.781153 -19.65953
8.566231 -2.781153 -19.18676
8.802268 -2.181153 -19.54011
9.159509 -2.341799 -19.1646
8.559508 -2.58029 -18.49275
8.559508 -2.446553 -19.09585
8.870759 -2.781153 -18.66165
9.024384 -2.781153 -19.23767
9.054275 -2.595171 -20
9.159509 -2.616602 -18.15088
9.031036 -2.254388 -17.73777
9.159509 -2.660947 -18.50178
8.82871 -2.181153 -19.16069
8.559508 -2.740036 -18.82917
8.680865 -2.773468 -17.73777
9.06429 -2.181153 -19.96148
9.061763 -2.181153 -18.7421
8.559508 -2.469621 -18.05881
9.118514 -2.730582 -17.73777
9.029104 -2.181153 -18.21725
8.676979 -2.781153 -19.98904
8.559508 -2.536791 -19.41268
9.159509 -2.515164 -19.61548
8.784473 -2.781153 -18.25459
8.566965 -2.181153 -18.69201
8.623321 -2.181153 -19.89993
8.664385 -2.181153 -17.74711
9.159509 -2.714707 -18.94351
9 0.03127893 2.319
9.004148 5.510729E-16 -2.862831
9 0.002128218 0.6257579
9.6 0.3877966 -9.632776
9.6 0.1006262 -2.56989
9.120315 0.6 -3.989687
9.134377 0.6 -0.4472408
9.6 0.5928665 5.989564
9.300783 5.510729E-16 -3.944302
9.097865 0.5603727 -20
9.6 0.4963963 -11.08463
9.6 0.3332373 -6.183022
9.493917 0.6 2.396088
9.6 0.1697833 -3.647809
9.296255 5.510729E-16 -7.102742
9 0.5437836 0.9362273
9 0.04780575 -10.65956
9.6 0.5673876 -17.61552
9 0.008822436 -4.694977
9.290504 5.510729E-16 -14.22792
9.075437 5.510729E-16 -0.2856107
9.561812 5.510729E-16 -14.89255
9.02262 0.6 -8.915166
9.046868 0.6 -1.138572
9.6 0.2886994 -5.161667
9.6 0.528707 3.966558
9.02709 5.510729E-16 3.282519
9.6 0.5126222 1.338807
9 0.2454816 -6.07486
9.6 0.04155951 -19.92693
9.022182 5.510729E-16 6.131776
9.6 0.5808368 0.77151
9 0.5019646 -18.35053
9 0.185311 -16.53375
9.6 0.01147467 -17.88927
9.292331 5.510729E-16 2.804212
9.123475 5.510729E-16 -8.305682
9.6 0.557339 -11.68965
9.030423 5.510729E-16 -9.426213
9.545332 0.6 -16.11783
9.01989 0.6 -13.07878
9.572145 0.007633814 6.410894
9.469283 0.6 -6.723377
9.6 0.4304045 -10.50307
9.098687 0.6 1.875264
9.6 0.5655013 5.076527
9.328571 5.510729E-16 -18.41639
9.074574 5.510729E-16 -5.305138
9 0.3920671 3.678825
9.092764 0.6 -2.862711
9 0.5877773 -15.60377
9.198806 0.6 5.606994
9.536427 0.6 -15.24197
9 0.2001851 -1.538498
9.560933 0.6 -12.50934
9.178967 0.6 -9.949031
9 0.5775075 -11.08818
9.424196 0.6 -8.268684
9.4726 0.6 -19.63918
9.6 0.5720987 -18.44793
9.6 0.4724602 -1.594018
9 0.06590137 4.321311
9 0.003544905 5.046799
9.14803 0.6 -17.03779
9 0.08469231 -0.8609402
9.512412 5.510729E-16 -19.02711
9.6 0.101095 -3.090148
9.1736 0.6 -4.942752
9.593699 5.510729E-16 0.4263023
9.566116 0.6 -2.401202
9.595747 5.510729E-16 -11.9676
9.583832 5.510729E-16 3.375535
9.023811 0.6 -7.579977
9 0.04919535 -13.6211
9.249677 5.510729E-16 -6.531238
9.549593 5.510729E-16 5.553079
9.530167 5.510729E-16 2.2099
9 0.1995571 -3.62411
9 0.5001324 0.2606905
9.565207 5.510729E-16 -16.82317
9.464874 5.510729E-16 -11.10005
9.6 0.2282725 -9.012627
9.248699 5.510729E-16 -12.89863
9 0.2963167 -14.87004
9.019307 0.6 -18.96445
9.320172 0.6 -5.772579
9.180127 5.510729E-16 -15.83789
9.259148 5.510729E-16 1.274044
9.014978 5.510729E-16 -2.250059
9.6 0.3108974 4.519792
9 0.5016205 -11.9517
9 0.2255464 -17.67159
9.412754 5.510729E-16 -10.01644
9.6 0.1836059 -4.327899
9.056039 0.6 2.885471
9.6 0.486518 -13.87867
9.6 0.2804265 -0.5515123
9.003736 0.0936459 -20
9.190854 0.5904876 6.410894
9.6 0.06644639 -7.66583
9.077497 2.781153 -14.20847
8.92841 3.381153 -15.69154
9.058013 3.381153 -17.91039
8.559508 3.190081 -12.56758
8.898366 3.381153 -19.22373
8.852274 2.781153 -13.76059
8.897723 3.092887 -12.35936
8.644427 3.381153 -18.55104
8.982686 3.381153 -16.17274
8.559508 3.084116 -19.47226
9.159509 3.120036 -17.82007
8.580323 2.781153 -12.55495
8.697512 3.381153 -13.63408
8.559508 3.164284 -15.20648
8.646699 2.781153 -16.96412
9.159509 3.056775 -18.87239
9.159509 2.970008 -16.06181
8.559508 2.841977 -15.91923
8.829926 2.781153 -19.70502
9.159509 3.095516 -12.67813
8.809161 3.081012 -20
9.159509 3.199668 -13.4091
9.159509 3.141549 -16.76695
8.559508 3.096752 -14.67914
9.036388 2.781153 -14.83165
8.843376 3.381153 -19.67602
8.924823 2.781153 -19.28016
8.87796 3.381153 -14.64851
8.618626 3.381153 -14.90961
8.647902 2.781153 -18.43183
8.559508 3.264582 -19.19202
8.834916 3.381153 -13.32916
8.559508 2.939651 -16.60953
9.159509 3.013795 -17.43515
8.757512 2.781153 -14.53296
8.559508 3.070976 -17.86489
8.758997 3.381153 -18.23365
8.788758 3.381153 -17.32032
9.148235 3.381153 -19.71758
9.078965 2.781153 -17.73376
9.159509 2.979764 -13.9985
8.742095 2.781153 -13.30541
8.992341 2.781153 -15.47603
8.559508 3.259323 -13.86601
9.14372 3.381153 -15.35263
9.023246 2.824607 -20
9.155653 2.781153 -13.18667
8.559508 2.998097 -17.47612
9.034049 2.781153 -17.06394
9.159148 3.250597 -12.35936
8.582658 3.336806 -20
8.619302 3.381153 -12.89666
8.634841 3.381153 -16.61103
8.559508 3.100165 -15.67887
8.591949 2.781153 -13.64825
9.101051 3.381153 -18.7764
9.159509 3.295775 -16.41518
9.042321 3.381153 -14.21065
8.901145 2.781153 -16.72951
8.560068 3.003619 -12.35936
8.683476 2.781153 -16.30177
9.04179 2.781153 -12.82449
8.559508 3.123533 -18.3863
9.159509 2.887547 -18.08918
9.159509 3.180253 -15.78905
8.559508 3.374483 -19.53274
9.125625 3.381153 -14.90869
8.660271 3.381153 -14.36437
9.159509 3.37888 -17.59482
9.017242 2.781153 -18.57299
9.159509 2.793658 -19.068
8.559508 2.81494 -15.40528
9.159509 2.894093 -15.08414
8.584394 2.781153 -19.43585
9.089676 2.781153 -13.5747
8.597867 3.381153 -18.86035
8.559508 3.115753 -16.94625
8.921188 2.795028 -12.35936
8.559508 2.876131 -12.98958
9.144825 2.781153 -19.65333
9.15364 3.381153 -13.74049
9.074241 3.353866 -20
9.027184 3.381153 -16.98322
8.559508 2.832394 -14.10285
8.878542 2.781153 -15.83094
8.652992 2.781153 -18.09447
8.628375 3.381153 -17.73165
9.159509 3.236159 -12.96645
8.574487 2.781153 -14.86496
9.159509 3.345574 -19.31297
8.629991 3.381153 -16.12597
8.559508 3.224892 -13.4475
8.616481 2.781153 -18.85497
8.902195 2.781153 -17.44133
8.693658 3.381153 -15.31859
9.159509 3.319583 -18.29025
9.159509 3.061579 -14.37357
8.563246 2.874799 -20
8.750362 3.371641 -12.35936
9.159509 2.847599 -16.43174
7.401468 5.890067 -3.907676
7.415531 5.890067 -0.3470833
7.881153 5.838893 1.956934
7.281153 5.376384 -7.978193
7.281153 5.4181 -10.37887
7.389326 5.290067 -9.414023
7.881153 5.794628 6.12211
7.281153 5.582215 -1.56307
7.881153 5.459851 -3.564046
7.403168 5.290067 -0.01856755
7.881153 5.376387 -4.854075
7.281153 5.579072 2.485848
7.347338 5.290067 -11.58051
7.881153 5.857455 -17.6033
7.281153 5.29889 -4.616578
7.881153 5.342579 -15.17287
7.881153 5.886481 -11.44222
7.281153 5.395694 5.699921
7.709475 5.890067 4.083563
7.827819 5.890067 -13.29046
7.881153 5.708583 2.899022
7.881153 5.847387 -10.17324
7.308243 5.290067 3.401781
7.318842 5.890067 -6.30418
7.881153 5.80269 1.448113
7.881153 5.331627 -19.92655
7.881153 5.750925 0.08385313
7.303335 5.290067 6.265634
7.881153 5.402575 -5.968966
7.281153 5.491134 -14.26364
7.281153 5.792032 -18.34208
7.881153 5.301542 -17.87846
7.573484 5.290067 2.921025
7.881153 5.888569 -15.9744
7.349341 5.890067 4.898396
7.285776 5.890067 -9.97421
7.364423 5.890067 0.9691755
7.32884 5.890067 -1.121014
7.881153 5.451133 -14.59344
7.281153 5.709767 -8.922388
7.301043 5.890067 -13.04333
7.853297 5.297701 6.546182
7.750436 5.890067 -6.655369
7.281153 5.770761 -16.21595
7.37984 5.890067 1.987318
7.881153 5.855568 5.204979
7.609724 5.290067 -18.40828
7.355728 5.290067 -5.229864
7.281153 5.682135 3.800118
7.373917 5.890067 -2.774927
7.708824 5.890067 -9.514618
7.281153 5.877844 -15.58125
7.479959 5.890067 5.738163
7.81758 5.890067 -15.21759
7.445643 5.290067 -8.454973
7.842086 5.890067 -12.47097
7.387303 5.890067 -10.61524
7.705349 5.890067 -8.208591
7.753753 5.890067 -19.63733
7.881153 5.862166 -18.43998
7.881153 5.762527 -1.499735
7.281153 5.355968 4.445895
7.281153 5.293612 5.175099
7.429183 5.890067 -17.02262
7.281153 5.37476 -0.7629018
7.793565 5.290067 -19.02213
7.881153 5.391162 -3.003529
7.454753 5.890067 -4.865623
7.874852 5.290067 0.5309345
7.847269 5.890067 -2.311054
7.8769 5.290067 -11.92645
7.864985 5.290067 3.495275
7.304965 5.890067 -7.516356
7.281153 5.339262 -13.58842
7.53083 5.290067 -6.462245
7.830746 5.290067 5.683973
7.81132 5.290067 2.323668
7.281153 5.489625 -3.540226
7.281153 5.7902 0.3644743
7.846361 5.290067 -16.80689
7.746027 5.290067 -11.05446
7.881153 5.51834 -8.956345
7.529852 5.290067 -12.86225
7.281153 5.586384 -14.84377
7.30046 5.890067 -18.95915
7.601325 5.890067 -5.6997
7.46128 5.290067 -15.81657
7.540301 5.290067 1.383018
7.296131 5.290067 -2.159136
7.881153 5.600965 4.645392
7.281153 5.791688 -11.91047
7.281153 5.515614 -17.65966
7.693907 5.290067 -9.965297
7.881153 5.473673 -4.24762
7.337192 5.890067 3.0027
7.881153 5.776585 -13.84731
7.881153 5.570494 -0.451889
7.28489 5.383713 -20
7.472007 5.880555 6.546182
7.881153 5.356514 -7.602649
5.628925 7.881153 -18.69807
5.449768 7.281153 -17.4253
5.633585 7.881153 -11.12408
5.890067 7.428541 -7.711297
5.890067 7.500234 -9.549119
5.777022 7.881153 -8.934155
5.290067 7.669828 -10.51572
5.412082 7.281153 -10.35436
5.769015 7.281153 -11.46961
5.623414 7.281153 -8.972178
5.291388 7.367005 -7.185358
5.377258 7.281153 -14.90832
5.290067 7.574203 -15.87595
5.290067 7.681808 -7.71908
5.890067 7.463432 -15.42024
5.689959 7.281153 -18.37859
5.416445 7.881153 -8.499868
5.290067 7.814544 -17.33177
5.4397 7.281153 -19.00172
5.890067 7.641549 -14.57763
5.290067 7.698174 -16.58214
5.290067 7.596752 -11.07603
5.837455 7.881153 -10.82871
5.290067 7.35074 -11.82183
5.290067 7.36803 -9.96867
5.776468 7.881153 -8.5758
5.631606 7.281153 -8.238088
5.885432 7.637052 -7.185358
5.890067 7.461619 -9.893181
5.666636 7.881153 -11.74062
5.730864 7.881153 -15.39774
5.447859 7.808586 -20
5.294691 7.881153 -15.16025
5.290067 7.349066 -18.58933
5.414688 7.281153 -13.94603
5.82174 7.281153 -16.8155
5.290067 7.700852 -14.6525
5.890067 7.818447 -18.94726
5.290067 7.309951 -9.192539
5.890067 7.283635 -13.49111
5.890067 7.387426 -11.08051
5.388754 7.881153 -9.386059
5.668757 7.881153 -7.670455
5.890067 7.83733 -16.50321
5.335079 7.881153 -13.5507
5.839375 7.881153 -13.83499
5.779422 7.281153 -18.78249
5.662544 7.281153 -15.73632
5.406951 7.881153 -18.41454
5.290067 7.416654 -8.587852
5.34986 7.881153 -8.086498
5.733194 7.281153 -11.88629
5.854897 7.881153 -17.6023
5.873549 7.881153 -12.59187
5.314863 7.281153 -12.23258
5.890067 7.462166 -16.22355
5.83963 7.313734 -20
5.890067 7.583242 -9.105532
5.513125 7.281153 -14.44477
5.610873 7.281153 -12.92362
5.290067 7.333614 -10.69416
5.29586 7.881153 -11.47977
5.369153 7.281153 -19.41088
5.405724 7.881153 -10.77536
5.462468 7.881153 -16.27735
5.290067 7.685357 -18.92448
5.835598 7.281153 -15.02498
5.890067 7.666988 -11.45839
5.747801 7.281153 -17.60667
5.873899 7.281153 -8.658122
5.290067 7.353374 -7.986823
5.290067 7.401585 -17.0796
5.290067 7.689145 -12.77485
5.633898 7.281153 -7.386581
5.830494 7.881153 -9.754059
5.412483 7.881153 -17.69123
5.386461 7.881153 -14.17772
5.290067 7.781285 -10.16945
5.81945 7.881153 -13.20221
5.890067 7.805621 -15.77738
5.890067 7.729845 -18.25785
5.885737 7.826918 -20
5.309374 7.881153 -19.49755
5.757742 7.881153 -14.94036
5.390764 7.881153 -12.11685
5.290067 7.32227 -13.3677
5.549215 7.281153 -9.677773
5.427479 7.281153 -16.38813
5.305046 7.281153 -11.38768
5.890067 7.592051 -8.102926
5.890067 7.433592 -19.22616
5.290067 7.453125 -15.34221
5.347039 7.281153 -18.07959
5.890067 7.464759 -12.39585
5.346106 7.881153 -8.895904
5.890067 7.767671 -17.02991
5.890067 7.56158 -10.56354
5.293804 7.374799 -20
5.480921 7.871641 -7.185358
5.890067 7.3476 -14.01542
3.381153 8.978328 2.427949
3.381153 9.04783 -7.054161
3.368889 9.159509 -0.209373
2.781153 9.037263 -1.038855
3.381153 8.585908 -18.02388
2.924866 8.559508 6.595357
3.381153 9.064069 8.140575
3.068163 8.559508 -14.89401
3.381153 8.729292 -2.294034
2.903168 8.559508 1.525406
2.781153 8.848514 4.223338
3.1145 8.559508 4.609912
2.847337 8.559508 -10.92993
3.381153 8.644531 -17.17591
3.340327 8.559508 -16.00428
3.381153 9.155923 -10.78096
3.381153 9.078791 -6.115529
2.842157 9.159509 -6.542958
2.803773 9.159509 -7.997468
2.781153 8.567719 -19.01958
3.381153 8.848208 -3.933222
3.143329 9.159509 -2.700119
2.781153 8.875108 -0.08507955
3.381153 9.072131 3.105417
2.967592 9.159509 -15.35394
3.381153 8.601068 -19.92088
2.822465 9.159509 7.337548
3.381153 9.134457 -7.575484
3.299179 9.159509 4.401801
2.781153 8.768804 -4.272655
2.781153 8.74482 -16.24678
3.381153 8.864686 5.890254
2.781153 8.576145 -7.689557
2.785776 9.159509 -9.199513
2.781153 9.102471 -1.840301
2.811577 8.559508 -8.550824
2.890891 9.159509 6.253138
3.381153 8.720574 -14.17568
2.860413 8.559508 -3.339005
2.781153 9.138021 -13.6177
3.381153 9.096803 -17.65068
2.781153 8.662337 -9.859943
3.23572 8.566063 8.597416
3.348046 8.559508 -4.487681
2.87984 9.159509 3.686287
3.381153 9.12501 7.152578
2.781153 8.733096 -5.135364
3.2183 9.159509 -12.66912
2.781153 8.951576 5.639163
2.868927 9.159509 2.330772
3.208824 9.159509 -8.704409
3.31758 9.159509 -14.84805
2.781153 8.67598 -2.489997
2.781153 9.098148 7.964542
3.342086 9.159509 -11.8892
2.904418 9.159509 1.55925
2.781153 9.137016 -10.35038
3.253753 9.159509 -19.6093
3.381153 9.131607 -18.31943
2.781153 8.641627 -18.27692
3.381153 8.655087 -18.98365
2.781153 9.149502 0.5061032
2.781153 8.563053 7.120389
2.929183 9.159509 -16.79256
2.781153 8.771189 -6.183212
2.781153 8.984982 -7.174973
3.369268 9.159509 -15.9758
2.954753 9.159509 -3.696184
3.381153 9.133981 -9.725971
3.347269 9.159509 -0.9442217
3.3769 8.559508 -11.3026
3.364985 8.559508 5.310764
3.312401 8.559508 -0.1441863
2.781153 8.608704 -13.093
3.381153 8.672448 -1.600891
3.330746 8.559508 7.668584
3.31132 8.559508 4.048627
3.205653 8.559508 2.04686
3.381153 8.855304 -5.480747
3.34636 8.559508 -16.56016
3.381153 8.597538 -10.34418
3.381153 8.787781 -8.102998
3.029852 8.559508 -12.31071
2.781153 8.855825 -14.44534
2.80046 9.159509 -18.87872
3.101325 9.159509 -4.59471
2.96128 8.559508 -15.49331
3.040301 8.559508 3.035293
2.796131 8.559508 -0.7805654
3.381153 8.870406 6.549751
2.781153 9.06113 -11.28539
2.781153 8.785055 -17.47882
3.193907 8.559508 -9.189912
3.381153 8.743114 -3.030427
2.837192 9.159509 4.780128
3.381153 9.046026 -13.37189
3.381153 8.839935 1.058601
2.78489 8.653154 -20
2.972007 9.149996 8.597416
3.381153 8.625955 -6.644701
0.3414892 9 -2.928529
0.6 9.38109 -5.672352
0.6 9.592867 -2.188618
0.1997813 9.6 -18.45449
0.07184143 9.6 -8.840534
0.3954597 9 -7.974471
0.6 9.557158 -8.551483
0.53108 9 -12.15742
0.2218063 9.6 -2.364816
0 9.498408 -7.484675
0.3333465 9 -4.423676
0 9.229599 -5.794496
0.3030913 9 -8.945618
0.2905043 9 -16.04423
0.07767338 9.6 -6.425476
0.5623998 9.6 -17.50262
0.6 9.191985 -7.683846
0.02262017 9.6 -12.40325
0 9.038154 -19.04983
0.02709015 9 -4.043833
0.03768961 9.6 -10.6617
0.01311014 9.049261 -1.899869
0.5473874 9.6 -7.04595
0.5017987 9.6 -3.833061
0.6 9.574947 -12.13616
0.5180256 9.6 -4.555395
0 9.358548 -12.90384
0.1762306 9.573126 -20
0 9.158498 -11.96822
0.6 9.06294 -13.82203
0.3373885 9.6 -9.102541
0.08326996 9.6 -5.70247
0 9.330743 -17.71368
0 9.170258 -14.12026
0.3763343 9.6 -9.64951
0.6 9.161066 -16.31362
0 9.578513 -15.96046
0 9.523033 -3.571592
0.4692835 9.6 -10.90116
0.6 9.052421 -15.30037
0.09868699 9.6 -5.008265
0.6 9.040449 -10.92918
0 9.346308 -10.09715
0.274949 9 -18.0589
0.6 9.106349 -10.10027
0.09276389 9.6 -8.255332
0 9.028264 -14.67312
0.6 9.245845 -18.65659
0.525903 9 -6.167514
0 9.139621 -6.486565
0.182524 9.6 -17.2092
0.6 9.036553 -17.59041
0.5924636 9.251855 -20
0.03244017 9 -4.953156
0 9.480852 -2.917144
0.6 9.429117 -2.580326
0.6 9.056829 -1.913308
0 9.065902 -3.331919
0.1169426 9.6 -18.96818
0.4711878 9 -16.85169
0.3008783 9 -7.271676
0.1661514 9 -12.44445
0 9.211679 -11.25496
0.5124123 9 -19.33325
0.4977378 9.6 -15.17587
0.1156567 9.6 -6.970599
0.4452037 9.6 -6.082332
0.545531 9 -12.973
0.5957472 9 -14.49517
0.5838317 9 -3.980086
0.5595262 9.6 -16.77345
0.6 9.11294 -8.354672
0 9.02275 -2.523916
0.4414782 9.6 -13.91067
0 9.186843 -9.536857
0.6 9.262952 -4.992581
0 9.199557 -8.777141
0.09639371 9.6 -11.77629
0.5293826 9.6 -10.39841
0 9.089869 -15.38261
0.5624492 9.6 -18.059
0.389625 9.6 -19.53142
0 9.296317 -16.4843
0.4676746 9.6 -12.85347
0.5370775 9.6 -7.538455
0 9.041118 -10.63216
0.06886598 9.6 -14.62644
0.2338039 9 -5.604143
0.01497828 9 -7.835464
0.6 9.310898 -3.195895
0 9.197403 -18.55707
0 9.171972 -13.42107
0.05697187 9 -17.2875
0.6 9.183606 -9.259467
0.0560386 9.6 -4.315941
0.6 9.486518 -15.80488
0.6 9.280427 -6.671402
0.003736672 9.093646 -20
0.190854 9.590487 -1.899869
0.6 9.066446 -11.54705
-2.246322 7.608452 -1.122465
-1.872136 8.069352 -3.288521
-2.472136 7.920141 -16.31008
-1.872136 8.03069 -10.77745
-2.472136 7.781242 -8.990787
-2.359222 8.208452 -19.75509
-2.000967 7.633438 -20
-1.941056 7.608452 -11.10023
-2.350121 7.608452 -4.539399
-2.472136 8.152236 -3.717648
-2.405951 7.608452 -13.48543
-2.451234 7.608452 -10.94071
-1.872136 7.833882 -16.88905
-1.872136 7.660964 -16.26501
-1.872136 7.652243 -11.68088
-2.472136 7.981677 -3.052197
-2.068038 8.208452 -10.40078
-2.472136 7.646606 -18.92174
